ply
format ascii 1.0
element vertex 1057
property float x
property float y
property float z
property uchar red
property uchar green
property uchar blue
end_header
356.920695 -85.050049 1993.333333 29 113 109
354.942039 -85.092716 1994.333333 28 112 108
352.961220 -85.135383 1995.333333 29 113 109
351.007538 -85.185162 1996.500000 30 114 110
349.051332 -85.234940 1997.666667 31 115 111
346.861072 -85.227829 1997.500000 30 114 110
344.728694 -85.234940 1997.666667 31 115 111
342.567375 -85.234940 1997.666667 31 115 111
340.519657 -85.263385 1998.333333 29 113 109
338.357616 -85.263385 1998.333333 32 116 112
336.083417 -85.234940 1997.666667 32 116 112
333.810660 -85.206495 1997.000000 30 114 110
331.400951 -85.142494 1995.500000 31 115 111
328.856994 -85.042937 1993.166667 30 114 110
326.700543 -85.042937 1993.166667 31 115 111
324.381264 -85.000270 1992.166667 31 115 111
322.091107 -84.964714 1991.333333 30 114 110
319.856308 -84.943381 1990.833333 30 114 110
317.489605 -84.886491 1989.500000 30 114 110
315.284288 -84.872268 1989.166667 30 114 110
313.053455 -84.850935 1988.666667 30 114 110
310.953986 -84.865157 1989.000000 30 114 110
308.931422 -84.900713 1989.833333 30 114 110
306.829969 -84.914936 1990.166667 29 113 109
304.727794 -84.929158 1990.500000 32 116 112
302.675568 -84.957603 1991.166667 30 114 110
300.470972 -84.943381 1990.833333 30 114 110
298.416943 -84.971825 1991.500000 29 113 109
296.460647 -85.028715 1992.833333 30 114 110
294.403011 -85.057160 1993.500000 30 114 110
292.441666 -85.114050 1994.833333 31 115 111
290.089389 -85.057160 1993.500000 30 114 110
288.077013 -85.099827 1994.500000 30 114 110
285.966905 -85.114050 1994.833333 31 115 111
283.832363 -85.121161 1995.000000 31 115 111
281.579802 -85.092716 1994.333333 31 115 111
279.468792 -85.106938 1994.666667 30 114 110
277.194863 -85.071382 1993.833333 31 115 113
274.991710 -85.057160 1993.500000 31 115 113
272.720847 -85.021604 1992.666667 31 115 113
270.497047 -85.000270 1992.166667 31 115 113
268.296779 -84.986048 1991.833333 30 114 112
266.030424 -84.950492 1991.000000 30 114 112
263.611248 -84.865157 1989.000000 31 115 113
261.349762 -84.829601 1988.166667 31 115 113
259.111807 -84.801156 1987.500000 31 115 113
256.810650 -84.751378 1986.333333 32 116 114
254.618857 -84.737155 1986.000000 31 115 113
252.406598 -84.715822 1985.500000 32 116 114
250.216427 -84.701599 1985.166667 33 117 115
248.068632 -84.701599 1985.166667 32 116 114
246.065363 -84.751378 1986.333333 31 115 113
243.793508 -84.708711 1985.333333 31 115 113
241.746962 -84.744267 1986.166667 31 115 113
239.698613 -84.779823 1987.000000 31 115 113
237.508983 -84.765600 1986.666667 31 115 113
235.339820 -84.758489 1986.500000 35 119 117
233.288405 -84.794045 1987.333333 32 116 114
231.118882 -84.786934 1987.166667 33 117 115
228.968923 -84.786934 1987.166667 32 116 114
226.723845 -84.751378 1986.333333 32 116 114
224.518258 -84.730044 1985.833333 33 117 115
222.332415 -84.715822 1985.500000 33 117 115
220.054881 -84.666043 1984.333333 31 118 115
217.761568 -84.609154 1983.000000 30 117 114
215.543629 -84.580709 1982.333333 31 118 115
213.380957 -84.573598 1982.166667 31 118 115
211.147601 -84.538042 1981.333333 31 118 115
209.003953 -84.538042 1981.333333 30 117 114
206.912507 -84.559375 1981.833333 31 118 115
204.819980 -84.580709 1982.333333 30 117 114
202.641170 -84.566486 1982.000000 30 117 114
200.648539 -84.630487 1983.500000 31 118 115
198.502547 -84.630487 1983.500000 33 120 117
196.406052 -84.651821 1984.000000 31 118 115
194.259519 -84.651821 1984.000000 30 117 114
192.064571 -84.630487 1983.500000 30 117 114
189.902620 -84.623376 1983.333333 29 117 114
187.677919 -84.587820 1982.500000 28 116 113
185.455021 -84.552264 1981.666667 29 117 114
183.233927 -84.516708 1980.833333 29 117 114
181.029872 -84.488263 1980.166667 29 117 114
178.947713 -84.516708 1980.833333 32 120 117
176.774853 -84.502486 1980.500000 33 120 117
174.588019 -84.481152 1980.000000 31 118 115
172.387751 -84.452707 1979.333333 33 120 117
170.303609 -84.481152 1980.000000 33 120 117
168.133093 -84.466930 1979.666667 33 120 117
166.130995 -84.538042 1981.333333 31 118 115
164.056319 -84.573598 1982.166667 33 120 117
162.047910 -84.644710 1983.833333 31 118 115
160.035895 -84.715822 1985.500000 29 117 114
157.980513 -84.765600 1986.666667 32 120 117
155.974898 -84.843824 1988.500000 33 121 118
153.900853 -84.886491 1989.500000 33 121 118
151.811932 -84.922047 1990.333333 32 120 117
149.771336 -84.986048 1991.833333 30 118 115
147.715142 -85.042937 1993.166667 30 118 115
145.595206 -85.064271 1993.666667 29 117 114
143.450206 -85.071382 1993.833333 30 118 115
141.269412 -85.057160 1993.500000 32 120 117
139.159123 -85.085605 1994.166667 29 117 114
136.932889 -85.042937 1993.166667 30 118 115
134.697549 -84.993159 1992.000000 32 120 117
132.509092 -84.971825 1991.500000 29 117 114
130.212625 -84.879380 1989.333333 29 117 114
127.920846 -84.786934 1987.166667 30 118 115
125.707595 -84.744267 1986.166667 30 118 115
123.527613 -84.722933 1985.666667 32 120 117
121.318149 -84.680266 1984.666667 34 122 119
119.160887 -84.673155 1984.500000 32 120 117
117.003986 -84.666043 1984.333333 33 120 117
114.905327 -84.701599 1985.166667 34 121 118
112.776465 -84.715822 1985.500000 35 122 119
110.674741 -84.751378 1986.333333 34 121 118
108.580320 -84.794045 1987.333333 34 121 118
106.430180 -84.794045 1987.333333 34 121 118
104.306277 -84.815379 1987.833333 34 121 118
102.206987 -84.858046 1988.833333 33 120 117
100.105534 -84.900713 1989.833333 31 118 115
98.083960 -85.014493 1992.500000 34 121 118
95.944279 -85.028715 1992.833333 34 121 118
93.827408 -85.064271 1993.666667 33 120 117
91.731724 -85.121161 1995.000000 32 120 117
89.640638 -85.185162 1996.500000 32 120 117
87.517096 -85.220718 1997.333333 30 118 115
85.427362 -85.291830 1999.000000 34 122 119
83.278485 -85.306052 1999.333333 32 120 117
81.135648 -85.327386 1999.833333 33 121 118
78.991729 -85.348719 2000.333333 32 120 117
76.859531 -85.384275 2001.166667 33 121 118
74.713087 -85.405609 2001.666667 34 122 119
72.535359 -85.391387 2001.333333 35 123 120
70.352492 -85.370053 2000.833333 35 123 120
68.170707 -85.348719 2000.333333 33 121 118
65.995503 -85.334497 2000.000000 34 122 119
63.778467 -85.263385 1998.333333 32 120 117
61.595870 -85.234940 1997.666667 34 122 119
59.384964 -85.163828 1996.000000 32 120 117
57.192000 -85.114050 1994.833333 32 120 117
55.019952 -85.092716 1994.333333 34 122 119
52.840150 -85.057160 1993.500000 35 123 120
50.653677 -85.007381 1992.333333 35 123 120
48.473786 -84.964714 1991.333333 35 123 120
46.284428 -84.900713 1989.833333 35 123 120
44.124191 -84.886491 1989.500000 35 123 120
41.933031 -84.808268 1987.666667 33 121 118
39.759180 -84.758489 1986.500000 35 122 119
37.584699 -84.701599 1985.166667 35 122 119
35.419052 -84.658932 1984.166667 35 122 119
33.238801 -84.573598 1982.166667 35 122 119
31.073336 -84.516708 1980.833333 33 120 117
28.925360 -84.502486 1980.500000 35 122 119
26.773599 -84.474041 1979.833333 34 121 118
24.612912 -84.410040 1978.333333 34 121 118
22.470617 -84.402929 1978.166667 34 121 118
20.323543 -84.374484 1977.500000 34 121 118
18.182510 -84.367373 1977.333333 33 120 117
16.039133 -84.346039 1976.833333 34 121 118
13.898010 -84.331817 1976.500000 35 122 119
11.755625 -84.303372 1975.833333 34 121 118
9.617928 -84.303372 1975.833333 35 122 119
7.481492 -84.317594 1976.166667 34 121 118
5.344336 -84.331817 1976.500000 33 120 117
3.206458 -84.346039 1976.833333 33 120 117
1.067859 -84.360261 1977.166667 34 121 118
-1.071642 -84.388706 1977.833333 33 120 117
-3.210421 -84.360261 1977.166667 33 121 118
-5.351816 -84.395817 1978.000000 32 120 117
-7.493120 -84.410040 1978.333333 32 120 117
-9.635957 -84.431374 1978.833333 33 121 118
-11.783843 -84.481152 1980.000000 33 121 118
-13.927221 -84.488263 1980.166667 33 121 118
-16.065549 -84.466930 1979.666667 34 122 119
-18.218123 -84.516708 1980.833333 35 123 120
-20.362943 -84.523819 1981.000000 30 118 115
-22.496763 -84.488263 1980.166667 35 123 120
-24.657813 -84.552264 1981.666667 32 120 117
-26.808584 -84.573598 1982.166667 32 120 117
-28.943396 -84.545153 1981.500000 33 121 118
-31.071535 -84.502486 1980.500000 34 122 119
-33.205896 -84.481152 1980.000000 36 123 120
-35.321323 -84.417151 1978.500000 36 123 120
-37.446126 -84.381595 1977.666667 34 122 119
-39.585807 -84.381595 1977.666667 34 122 119
-41.672742 -84.274927 1975.166667 30 118 115
-43.794931 -84.246482 1974.500000 32 120 117
-45.896293 -84.182481 1973.000000 28 119 115
-48.014695 -84.154036 1972.333333 28 119 115
-50.157081 -84.168259 1972.666667 28 119 115
-52.286934 -84.161148 1972.500000 31 122 118
-54.421025 -84.161148 1972.500000 31 122 118
-56.588567 -84.210926 1973.666667 31 122 118
-58.768550 -84.274927 1975.166667 31 122 118
-60.967198 -84.360261 1977.166667 28 119 115
-63.159533 -84.431374 1978.833333 28 119 115
-65.366475 -84.516708 1980.833333 28 119 115
-67.566385 -84.587820 1982.500000 30 118 115
-69.787482 -84.680266 1984.666667 33 121 118
-71.977022 -84.730044 1985.833333 33 121 118
-74.237520 -84.858046 1988.833333 30 118 115
-76.440495 -84.914936 1990.166667 29 117 114
-78.620027 -84.943381 1990.833333 30 118 115
-80.794240 -84.964714 1991.333333 30 118 115
-83.038959 -85.057160 1993.500000 29 117 114
-85.224261 -85.085605 1994.166667 32 119 119
-87.462128 -85.163828 1996.000000 32 119 119
-89.636611 -85.178050 1996.333333 32 119 119
-91.796488 -85.178050 1996.333333 32 119 119
-93.964209 -85.185162 1996.500000 30 118 115
-96.140314 -85.199384 1996.833333 32 120 117
-98.341756 -85.234940 1997.666667 32 120 117
-100.545000 -85.270496 1998.500000 32 120 117
-102.707221 -85.270496 1998.500000 28 119 115
-104.921916 -85.313163 1999.500000 28 119 115
-107.031663 -85.270496 1998.500000 31 122 118
-109.230309 -85.298941 1999.166667 27 118 114
-111.402538 -85.306052 1999.333333 31 122 118
-113.641396 -85.362942 2000.666667 28 119 115
-115.757724 -85.327386 1999.833333 32 120 117
-117.911560 -85.320275 1999.666667 33 121 118
-120.055028 -85.306052 1999.333333 32 120 117
-122.248715 -85.327386 1999.833333 30 118 115
-124.339798 -85.277607 1998.666667 30 118 115
-126.470553 -85.256274 1998.166667 29 117 114
-128.600225 -85.234940 1997.666667 30 118 115
-130.761545 -85.234940 1997.666667 32 120 117
-132.956133 -85.256274 1998.166667 30 118 115
-135.095453 -85.242051 1997.833333 30 118 115
-137.222601 -85.220718 1997.333333 29 117 114
-139.453345 -85.263385 1998.333333 30 118 115
-141.686252 -85.306052 1999.333333 30 118 115
-143.885349 -85.327386 1999.833333 30 118 115
-146.122043 -85.370053 2000.833333 30 118 115
-148.373253 -85.419831 2002.000000 30 118 115
-150.439001 -85.362942 2000.666667 30 118 115
-152.603566 -85.362942 2000.666667 32 120 117
-154.742345 -85.348719 2000.333333 33 121 118
-156.867330 -85.327386 1999.833333 30 118 115
-159.030993 -85.327386 1999.833333 29 117 114
-161.114052 -85.284718 1998.833333 30 118 115
-163.181334 -85.234940 1997.666667 32 120 117
-165.287474 -85.206495 1997.000000 32 120 117
-167.280373 -85.121161 1995.000000 30 121 117
-169.353875 -85.078493 1994.000000 28 119 115
-171.425214 -85.035826 1993.000000 26 117 113
-173.479872 -84.986048 1991.833333 30 121 117
-175.532007 -84.936269 1990.666667 31 122 118
-177.522110 -84.858046 1988.833333 30 121 117
-179.598588 -84.822490 1988.000000 30 121 117
-181.688500 -84.794045 1987.333333 27 118 114
-183.792387 -84.772712 1986.833333 30 121 117
-185.941985 -84.772712 1986.833333 28 119 115
-188.012693 -84.737155 1986.000000 27 118 114
-190.161390 -84.737155 1986.000000 27 118 114
-192.326225 -84.744267 1986.166667 28 119 115
-194.475102 -84.744267 1986.166667 30 121 117
-196.524983 -84.701599 1985.166667 30 121 117
-198.739497 -84.730044 1985.833333 27 118 114
-200.803713 -84.694488 1985.000000 27 118 114
-202.951328 -84.694488 1985.000000 27 118 114
-205.150605 -84.715822 1985.500000 31 122 118
-207.350964 -84.737155 1986.000000 28 119 115
-209.534824 -84.751378 1986.333333 28 119 115
-211.719405 -84.765600 1986.666667 27 118 114
-213.976475 -84.808268 1987.666667 27 118 114
-216.181342 -84.829601 1988.166667 28 119 115
-218.405594 -84.858046 1988.833333 28 119 115
-220.705220 -84.914936 1990.166667 30 121 117
-222.951741 -84.950492 1991.000000 27 118 114
-225.105848 -84.950492 1991.000000 28 119 115
-227.259954 -84.950492 1991.000000 27 118 114
-229.490878 -84.978937 1991.666667 28 119 115
-231.645705 -84.978937 1991.666667 30 121 117
-233.722273 -84.950492 1991.000000 28 119 115
-235.777654 -84.914936 1990.166667 28 119 115
-237.871082 -84.893602 1989.666667 28 119 115
-239.923217 -84.858046 1988.833333 28 119 115
-241.973548 -84.822490 1988.000000 28 119 115
-244.022076 -84.786934 1987.166667 28 119 115
-246.006861 -84.730044 1985.833333 30 121 117
-248.051242 -84.694488 1985.000000 28 119 115
-250.219864 -84.701599 1985.166667 30 121 117
-252.155781 -84.630487 1983.500000 28 119 115
-254.259037 -84.616265 1983.166667 28 119 115
-256.340023 -84.594931 1982.666667 27 120 115
-258.550300 -84.616265 1983.166667 31 124 119
-260.630204 -84.594931 1982.666667 31 124 119
-262.841563 -84.616265 1983.166667 30 123 118
-264.898115 -84.587820 1982.500000 27 120 115
-267.043026 -84.587820 1982.500000 29 122 117
-269.142675 -84.573598 1982.166667 26 119 114
-271.401278 -84.609154 1983.000000 27 120 115
-273.776639 -84.680266 1984.666667 27 119 117
-275.900722 -84.673155 1984.500000 29 121 119
-278.071147 -84.680266 1984.666667 25 120 117
-280.265465 -84.694488 1985.000000 27 122 119
-282.436793 -84.701599 1985.166667 25 120 117
-284.536803 -84.687377 1984.833333 28 123 120
-286.732383 -84.701599 1985.166667 27 122 119
-288.831672 -84.687377 1984.833333 28 123 120
-290.979106 -84.687377 1984.833333 28 123 120
-293.175769 -84.701599 1985.166667 27 122 119
-295.224387 -84.673155 1984.500000 30 122 120
-297.371461 -84.673155 1984.500000 27 119 117
-299.468226 -84.658932 1984.166667 27 119 117
-301.614939 -84.658932 1984.166667 31 123 121
-303.787168 -84.666043 1984.333333 30 122 120
-305.908366 -84.658932 1984.166667 30 122 120
-308.080955 -84.666043 1984.333333 30 122 120
-310.279961 -84.680266 1984.666667 30 122 120
-312.505926 -84.701599 1985.166667 31 123 121
-314.706555 -84.715822 1985.500000 30 122 120
-316.987698 -84.751378 1986.333333 30 122 120
-319.297422 -84.794045 1987.333333 27 119 117
-321.582352 -84.829601 1988.166667 29 122 117
-323.923361 -84.879380 1989.333333 30 123 118
-326.212258 -84.914936 1990.166667 30 123 118
-328.970440 -85.071382 1993.833333 27 120 115
-331.266009 -85.106938 1994.666667 29 122 117
-333.758398 -85.192273 1996.666667 27 120 115
-336.395314 -85.313163 1999.500000 25 121 115
-338.897260 -85.398498 2001.500000 25 121 115
-341.403534 -85.483832 2003.500000 27 123 117
-343.942717 -85.576278 2005.666667 27 123 117
-346.400304 -85.647390 2007.333333 28 124 118
-348.890438 -85.725613 2009.166667 29 125 119
-351.442784 -85.818059 2011.333333 28 124 118
-353.589588 -85.810948 2011.166667 27 123 117
-355.912925 -85.846504 2012.000000 27 123 117
-358.060089 -85.839393 2011.833333 28 124 118
-360.356108 -85.867838 2012.500000 27 123 117
-362.473429 -85.853615 2012.166667 27 123 117
-364.408806 -85.796725 2010.833333 27 122 119
-366.523602 -85.782503 2010.500000 25 120 117
-368.607113 -85.761169 2010.000000 27 122 119
-370.566563 -85.711391 2008.833333 28 123 120
-372.399787 -85.633168 2007.000000 28 123 120
-374.508994 -85.618945 2006.666667 25 120 117
-376.523622 -85.583389 2005.833333 24 119 116
-378.536447 -85.547833 2005.000000 25 120 117
-380.547468 -85.512277 2004.166667 25 120 117
-382.620340 -85.490944 2003.666667 27 122 119
-384.628116 -85.455387 2002.833333 28 123 120
-386.473152 -85.384275 2001.166667 28 123 120
-388.379317 -85.327386 1999.833333 25 120 117
-390.412788 -85.298941 1999.166667 28 123 120
-392.281176 -85.234940 1997.666667 27 122 119
-394.179226 -85.178050 1996.333333 28 123 120
-396.140569 -85.135383 1995.333333 27 122 119
-398.365903 -85.149606 1995.666667 30 125 122
-400.725755 -85.192273 1996.666667 29 124 121
-403.323181 -85.284718 1998.833333 28 123 120
-406.060536 -85.405609 2001.666667 28 123 120
-408.532098 -85.469610 2003.166667 28 123 120
-411.553639 -85.647390 2007.333333 28 123 120
-414.378089 -85.782503 2010.500000 27 122 119
-416.864076 -85.846504 2012.000000 24 119 116
-419.665715 -85.974506 2015.000000 27 122 119
-422.194709 -86.045618 2016.666667 28 123 120
-424.727309 -86.116730 2018.333333 28 123 120
-426.981494 -86.130952 2018.666667 27 119 117
-429.378132 -86.173620 2019.666667 29 121 119
-431.919388 -86.244732 2021.333333 29 121 119
-434.177900 -86.258954 2021.666667 27 119 117
-436.724926 -86.330066 2023.333333 26 118 116
-439.094786 -86.365622 2024.166667 27 119 117
-441.030434 -86.315844 2023.000000 33 117 115
-442.598406 -86.194953 2020.166667 40 124 122
373.945628 -87.655293 2003.666667 31 84 86
368.380228 -87.363644 1997.000000 36 109 104
365.700039 -87.239692 1994.166667 37 110 105
363.208285 -87.159489 1992.333333 32 112 105
361.052736 -87.159489 1992.333333 31 111 104
359.107349 -87.210527 1993.500000 28 113 106
357.010223 -87.225110 1993.833333 28 113 106
355.031027 -87.268857 1994.833333 30 114 110
352.990702 -87.298022 1995.500000 32 116 112
350.831727 -87.298022 1995.500000 31 115 111
348.905724 -87.356352 1996.833333 31 115 111
346.890013 -87.392808 1997.666667 31 115 111
344.814977 -87.414682 1998.166667 30 114 110
342.796020 -87.451138 1999.000000 30 114 110
340.746859 -87.480303 1999.666667 29 113 109
338.414056 -87.436556 1998.666667 30 114 110
336.223615 -87.429265 1998.500000 31 115 111
334.144972 -87.451138 1999.000000 31 115 111
331.705420 -87.378226 1997.333333 31 115 111
329.241976 -87.298022 1995.500000 32 116 112
326.919090 -87.254275 1994.500000 32 116 112
324.679783 -87.232401 1994.000000 31 115 111
322.360684 -87.188654 1993.000000 30 114 110
320.124082 -87.166780 1992.500000 30 114 110
317.728979 -87.101159 1991.000000 30 114 110
315.522039 -87.086576 1990.666667 31 115 111
313.263347 -87.057411 1990.000000 31 115 111
311.188491 -87.079285 1990.500000 31 115 111
309.138429 -87.108450 1991.166667 30 114 110
307.009837 -87.115741 1991.333333 27 114 109
304.931916 -87.137615 1991.833333 30 117 112
302.852912 -87.159489 1992.333333 27 114 109
300.772827 -87.181363 1992.833333 29 116 111
298.741608 -87.217819 1993.666667 29 116 111
296.683792 -87.246984 1994.333333 29 116 111
294.599920 -87.268857 1994.833333 29 116 111
292.710432 -87.349061 1996.666667 29 116 111
290.453183 -87.319896 1996.000000 30 114 110
288.317739 -87.327187 1996.166667 31 115 111
286.253612 -87.356352 1996.833333 30 114 110
284.116906 -87.363644 1997.000000 31 115 111
281.862182 -87.334479 1996.333333 31 115 113
279.655602 -87.319896 1996.000000 29 113 111
277.635113 -87.363644 1997.000000 30 114 112
275.221617 -87.283440 1995.166667 30 114 112
273.131434 -87.305314 1995.666667 30 114 112
270.927018 -87.290731 1995.333333 32 116 114
268.655975 -87.254275 1994.500000 32 116 114
266.319926 -87.195945 1993.166667 31 115 113
263.898406 -87.108450 1991.166667 32 116 114
261.634576 -87.071994 1990.333333 33 117 115
259.350820 -87.028246 1989.333333 33 117 115
257.155420 -87.013664 1989.000000 33 117 115
254.896639 -86.977208 1988.166667 32 116 114
252.724410 -86.969917 1988.000000 32 116 114
250.510528 -86.948043 1987.500000 33 117 115
248.381035 -86.955334 1987.666667 33 117 115
246.333768 -86.991790 1988.500000 32 116 114
243.998170 -86.926169 1987.000000 32 116 114
241.848391 -86.926169 1987.000000 32 116 114
239.698613 -86.926169 1987.000000 31 115 113
237.588684 -86.940752 1987.333333 30 114 112
235.478035 -86.955334 1987.666667 33 117 115
233.425358 -86.991790 1988.500000 33 117 115
231.254572 -86.984499 1988.333333 33 117 115
229.007331 -86.948043 1987.500000 33 117 115
226.780916 -86.918878 1986.833333 33 117 115
224.631318 -86.918878 1986.833333 32 116 114
222.295089 -86.845965 1985.166667 32 116 114
220.036398 -86.802218 1984.166667 32 116 114
217.853080 -86.787636 1983.833333 32 116 114
215.579873 -86.736597 1982.666667 33 117 115
213.309190 -86.685558 1981.500000 33 117 115
211.236408 -86.714723 1982.166667 32 116 114
208.986372 -86.670976 1981.166667 32 116 114
206.947309 -86.714723 1982.166667 30 117 114
204.871641 -86.743888 1982.833333 30 117 114
202.726370 -86.743888 1982.833333 30 117 114
200.631679 -86.765762 1983.333333 31 118 115
198.485867 -86.765762 1983.333333 33 120 117
196.373054 -86.780344 1983.666667 31 118 115
194.292157 -86.809509 1984.333333 30 117 114
192.080709 -86.780344 1983.666667 31 118 115
189.950495 -86.787636 1983.833333 30 118 115
187.725253 -86.751179 1983.000000 30 118 115
185.548607 -86.736597 1982.666667 32 120 117
183.311013 -86.692849 1981.666667 30 118 115
181.090820 -86.656393 1980.833333 31 118 115
178.962769 -86.663684 1981.000000 33 120 117
176.819482 -86.663684 1981.000000 34 121 118
174.676195 -86.663684 1981.000000 33 120 117
172.431298 -86.612646 1979.833333 31 118 115
170.360950 -86.649102 1980.666667 33 120 117
168.218023 -86.649102 1980.666667 33 120 117
166.172919 -86.700141 1981.833333 33 120 117
164.083908 -86.729306 1982.500000 33 120 117
162.115980 -86.824092 1984.666667 31 118 115
160.035895 -86.860548 1985.500000 33 120 117
158.060033 -86.955334 1987.666667 33 120 117
155.948752 -86.977208 1988.166667 33 120 117
153.913746 -87.042829 1989.666667 33 120 117
151.811932 -87.071994 1990.333333 33 120 117
149.821464 -87.166780 1992.500000 34 121 118
147.727494 -87.203236 1993.333333 34 122 119
145.631720 -87.239692 1994.166667 34 122 119
143.462197 -87.232401 1994.000000 32 120 117
141.363899 -87.268857 1994.833333 33 121 118
139.217275 -87.276149 1995.000000 33 121 118
137.047391 -87.268857 1994.833333 30 118 115
134.832788 -87.232401 1994.000000 33 120 117
132.631077 -87.203236 1993.333333 33 120 117
130.387173 -87.144906 1992.000000 33 120 117
128.135424 -87.079285 1990.500000 34 121 118
125.876373 -87.006373 1988.833333 34 121 118
123.755715 -87.028246 1989.333333 33 120 117
121.542284 -86.984499 1988.333333 34 121 118
119.391063 -86.984499 1988.333333 33 120 117
117.190705 -86.948043 1987.500000 34 121 118
115.069326 -86.969917 1988.000000 35 122 119
112.956332 -86.999081 1988.666667 34 121 118
110.795464 -86.991790 1988.500000 34 121 118
108.689592 -87.028246 1989.333333 34 121 118
106.528363 -87.020955 1989.166667 34 121 118
104.454949 -87.086576 1990.666667 33 120 117
102.309768 -87.093868 1990.833333 31 118 115
100.197766 -87.130324 1991.666667 29 117 114
98.083960 -87.166780 1992.500000 33 121 118
96.000448 -87.232401 1994.000000 33 121 118
93.858783 -87.246984 1994.333333 32 120 117
91.785369 -87.327187 1996.166667 30 118 115
89.693020 -87.392808 1997.666667 32 120 117
87.575518 -87.436556 1998.666667 33 121 118
85.491465 -87.516760 2000.500000 34 122 119
83.340964 -87.531342 2000.833333 33 121 118
81.216790 -87.575089 2001.833333 32 120 117
79.044381 -87.567798 2001.666667 32 120 117
76.904339 -87.596963 2002.333333 33 121 118
74.731750 -87.589672 2002.166667 33 121 118
72.565562 -87.589672 2002.166667 33 121 118
70.352492 -87.531342 2000.833333 32 120 117
68.176387 -87.516760 2000.500000 32 120 117
65.990004 -87.487595 1999.833333 33 121 118
63.810382 -87.465721 1999.333333 33 121 118
61.626704 -87.436556 1998.666667 34 122 119
59.404799 -87.349061 1996.666667 34 122 119
57.230226 -87.327187 1996.166667 33 121 118
55.038344 -87.276149 1995.000000 33 121 118
52.853403 -87.232401 1994.000000 32 120 117
50.662152 -87.174071 1992.666667 33 121 118
48.461615 -87.093868 1990.833333 33 121 118
46.303812 -87.086576 1990.666667 34 122 119
44.109406 -87.006373 1988.833333 35 123 120
41.933031 -86.955334 1987.666667 34 122 119
39.745837 -86.875130 1985.833333 35 122 119
37.581543 -86.838674 1985.000000 35 122 119
35.425003 -86.816800 1984.500000 36 123 120
33.249981 -86.743888 1982.833333 34 121 118
31.086408 -86.692849 1981.666667 33 120 117
28.927795 -86.649102 1980.666667 33 120 117
26.773599 -86.612646 1979.833333 34 121 118
24.612912 -86.547025 1978.333333 35 122 119
22.472510 -86.547025 1978.333333 36 123 120
20.314979 -86.474112 1976.666667 36 123 120
18.170250 -86.444947 1976.000000 35 122 119
16.028315 -86.423073 1975.500000 35 122 119
13.888635 -86.408491 1975.166667 35 122 119
11.753642 -86.423073 1975.500000 33 120 117
9.614683 -86.408491 1975.166667 34 121 118
7.478968 -86.423073 1975.500000 35 122 119
5.342984 -86.444947 1976.000000 36 123 120
3.205376 -86.452238 1976.166667 35 122 119
1.067859 -86.495986 1977.166667 34 121 118
-1.071552 -86.517860 1977.666667 34 121 118
-3.210962 -86.510568 1977.500000 34 121 118
-5.351365 -86.525151 1977.833333 34 121 118
-7.493751 -86.554316 1978.500000 32 120 117
-9.634333 -86.554316 1978.500000 33 121 118
-11.781859 -86.605355 1979.666667 33 121 118
-13.923704 -86.605355 1979.666667 33 121 118
-16.068254 -86.619937 1980.000000 35 123 120
-18.218123 -86.656393 1980.833333 32 120 117
-20.362943 -86.663684 1981.000000 30 118 115
-22.504337 -86.656393 1980.833333 32 120 117
-24.664035 -86.714723 1982.166667 32 120 117
-26.819855 -86.751179 1983.000000 32 120 117
-28.960437 -86.736597 1982.666667 33 121 118
-31.102913 -86.729306 1982.500000 33 121 118
-33.228257 -86.678267 1981.333333 35 123 120
-35.357028 -86.641811 1980.500000 34 122 119
-37.477684 -86.590772 1979.333333 33 121 118
-39.585807 -86.517860 1977.666667 32 120 117
-41.690324 -86.444947 1976.000000 32 120 117
-43.802325 -86.393909 1974.833333 32 120 117
-45.919555 -86.357452 1974.000000 27 118 114
-48.047154 -86.342870 1973.666667 28 119 115
-50.165556 -86.313705 1973.000000 30 121 117
-52.300188 -86.313705 1973.000000 28 119 115
-54.434820 -86.313705 1973.000000 30 121 117
-56.593345 -86.350161 1973.833333 28 119 115
-58.773509 -86.415782 1975.333333 30 121 117
-60.992894 -86.532442 1978.000000 30 121 117
-63.223368 -86.656393 1980.833333 28 119 115
-65.410475 -86.714723 1982.166667 28 119 115
-67.628867 -86.809509 1984.333333 28 119 115
-69.834366 -86.882422 1986.000000 28 119 115
-72.055554 -86.969917 1988.000000 30 118 115
-74.249963 -87.020955 1989.166667 32 120 117
-76.440495 -87.064703 1990.166667 32 120 117
-78.652936 -87.130324 1991.666667 32 120 117
-80.814526 -87.137615 1991.833333 30 118 115
-83.032016 -87.203236 1993.333333 29 117 114
-85.231384 -87.246984 1994.333333 28 115 115
-87.389097 -87.246984 1994.333333 28 115 115
-89.576744 -87.276149 1995.000000 29 116 116
-91.735178 -87.276149 1995.000000 30 117 117
-93.924988 -87.305314 1995.666667 30 117 117
-96.100192 -87.319896 1996.000000 32 119 119
-98.292527 -87.349061 1996.666667 32 120 117
-100.477920 -87.370935 1997.166667 32 120 117
-102.638698 -87.370935 1997.166667 28 119 115
-104.851950 -87.414682 1998.166667 27 118 114
-106.960255 -87.370935 1997.166667 28 119 115
-109.166565 -87.407391 1998.000000 26 117 113
-111.337531 -87.414682 1998.166667 30 121 117
-113.518325 -87.429265 1998.500000 30 121 117
-115.651604 -87.407391 1998.000000 32 120 117
-117.862422 -87.443847 1998.833333 33 121 118
-119.994980 -87.421973 1998.333333 30 118 115
-122.126456 -87.400100 1997.833333 32 120 117
-124.287955 -87.400100 1997.833333 30 118 115
-126.386162 -87.356352 1996.833333 32 120 117
-128.525121 -87.341770 1996.500000 30 118 115
-130.663359 -87.327187 1996.166667 32 120 117
-132.856325 -87.349061 1996.666667 32 120 117
-135.005292 -87.341770 1996.500000 33 121 118
-137.199700 -87.363644 1997.000000 32 120 117
-139.441714 -87.414682 1998.166667 33 121 118
-141.721686 -87.487595 1999.833333 34 122 119
-143.921323 -87.509468 2000.333333 33 121 118
-146.134215 -87.538633 2001.000000 30 118 115
-148.360901 -87.575089 2001.833333 30 118 115
-150.526728 -87.575089 2001.833333 32 120 117
-152.628992 -87.538633 2001.000000 33 121 118
-154.768131 -87.524051 2000.666667 33 121 118
-156.932696 -87.524051 2000.666667 32 120 117
-159.030993 -87.487595 1999.833333 30 118 115
-161.114052 -87.443847 1998.833333 30 118 115
-163.181334 -87.392808 1997.666667 28 119 115
-165.163322 -87.298022 1995.500000 28 119 115
-167.210498 -87.239692 1994.166667 28 119 115
-169.311409 -87.210527 1993.500000 28 119 115
-171.367871 -87.159489 1992.333333 27 118 114
-173.291165 -87.042829 1989.666667 28 119 115
-175.326259 -86.984499 1988.333333 30 121 117
-177.328715 -86.911587 1986.666667 30 121 117
-179.357678 -86.853257 1985.333333 28 119 115
-181.475179 -86.838674 1985.000000 27 118 114
-183.545706 -86.802218 1984.166667 28 119 115
-185.739213 -86.824092 1984.666667 26 117 113
-187.823355 -86.794927 1984.000000 27 118 114
-189.953929 -86.787636 1983.833333 27 118 114
-192.100282 -86.787636 1983.833333 30 121 117
-194.230315 -86.780344 1983.666667 31 122 118
-196.392987 -86.787636 1983.833333 30 121 117
-198.539340 -86.787636 1983.833333 28 119 115
-200.685693 -86.787636 1983.833333 28 119 115
-202.883167 -86.809509 1984.333333 27 118 114
-205.030060 -86.809509 1984.333333 28 119 115
-207.263959 -86.845965 1985.166667 28 119 115
-209.499661 -86.882422 1986.000000 30 121 117
-211.683881 -86.897004 1986.333333 27 118 114
-213.940591 -86.940752 1987.333333 27 118 114
-216.145097 -86.962625 1987.833333 30 121 117
-218.460502 -87.028246 1989.333333 30 121 117
-220.686737 -87.057411 1990.000000 30 121 117
-222.914415 -87.086576 1990.666667 28 119 115
-225.068160 -87.086576 1990.666667 28 119 115
-227.317026 -87.123033 1991.500000 27 118 114
-229.510082 -87.137615 1991.833333 31 122 118
-231.626321 -87.123033 1991.500000 31 122 118
-233.761403 -87.115741 1991.333333 30 121 117
-235.836889 -87.086576 1990.666667 28 119 115
-237.751529 -86.999081 1988.666667 28 119 115
-239.822687 -86.969917 1988.000000 27 118 114
-241.851831 -86.926169 1987.000000 28 119 115
-243.940210 -86.904295 1986.500000 30 120 119
-245.903627 -86.838674 1985.000000 30 120 119
-247.988760 -86.816800 1984.500000 28 118 117
-250.051804 -86.787636 1983.833333 30 120 119
-252.092218 -86.751179 1983.000000 30 120 119
-254.066724 -86.692849 1981.666667 28 118 117
-256.146088 -86.670976 1981.166667 31 122 118
-258.333013 -86.685558 1981.500000 31 122 118
-260.542568 -86.707432 1982.000000 30 121 117
-262.731116 -86.722014 1982.333333 30 121 117
-264.742227 -86.678267 1981.333333 30 121 117
-266.885875 -86.678267 1981.333333 30 121 117
-269.142675 -86.714723 1982.166667 28 119 115
-271.218792 -86.692849 1981.666667 30 121 117
-273.523738 -86.743888 1982.833333 27 120 115
-275.784865 -86.780344 1983.666667 27 120 115
-278.071147 -86.824092 1984.666667 24 119 116
-280.288997 -86.845965 1985.166667 27 122 119
-282.436793 -86.845965 1985.166667 25 120 117
-284.512910 -86.824092 1984.666667 27 122 119
-286.780529 -86.860548 1985.500000 27 122 119
-288.904432 -86.853257 1985.333333 28 123 120
-291.076841 -86.860548 1985.500000 30 122 120
-293.224997 -86.860548 1985.500000 30 122 120
-295.273976 -86.831383 1984.833333 31 123 121
-297.321512 -86.802218 1984.166667 30 122 120
-299.367606 -86.773053 1983.500000 30 122 120
-301.513598 -86.773053 1983.500000 31 123 121
-303.532013 -86.736597 1982.666667 30 122 120
-305.754191 -86.758471 1983.166667 30 122 120
-307.873946 -86.751179 1983.000000 30 122 120
-310.019397 -86.751179 1983.000000 31 123 121
-312.269795 -86.780344 1983.666667 31 123 121
-314.574470 -86.824092 1984.666667 29 121 119
-316.801516 -86.845965 1985.166667 27 119 117
-319.163533 -86.904295 1986.500000 27 119 117
-321.501477 -86.955334 1987.666667 27 119 117
-323.869084 -87.013664 1989.000000 29 121 119
-326.294214 -87.086576 1990.666667 29 122 117
-328.777947 -87.174071 1992.666667 27 120 115
-331.293688 -87.268857 1994.833333 29 122 117
-333.786257 -87.356352 1996.833333 29 122 117
-336.367274 -87.465721 1999.333333 25 121 115
-338.869040 -87.553216 2001.333333 25 121 115
-341.431935 -87.655293 2003.666667 25 121 115
-344.085621 -87.779244 2006.500000 24 120 114
-346.630393 -87.874030 2008.666667 27 123 117
-349.093029 -87.946943 2010.333333 29 125 119
-351.471906 -87.997981 2011.500000 27 123 117
-353.882609 -88.056311 2012.833333 27 123 117
-356.207750 -88.092768 2013.666667 27 123 117
-358.416043 -88.100059 2013.833333 28 124 118
-360.654540 -88.114641 2014.166667 27 123 117
-362.683594 -88.078185 2013.333333 27 123 117
-364.801455 -88.063603 2013.000000 25 120 117
-366.827443 -88.027146 2012.166667 25 120 117
-369.035015 -88.034438 2012.333333 25 120 117
-370.874010 -87.954234 2010.500000 28 123 120
-372.801813 -87.895904 2009.166667 28 123 120
-374.664521 -87.822992 2007.500000 28 123 120
-376.711336 -87.793827 2006.833333 25 120 117
-378.567913 -87.720914 2005.166667 27 122 119
-380.642407 -87.699041 2004.666667 27 122 119
-382.461207 -87.618837 2002.833333 28 123 120
-384.308046 -87.545925 2001.166667 29 124 121
-386.247840 -87.494886 2000.000000 27 122 119
-388.055640 -87.414682 1998.166667 25 120 117
-389.989665 -87.363644 1997.000000 28 123 120
-391.855708 -87.298022 1995.500000 29 124 121
-393.784323 -87.246984 1994.333333 29 124 121
-396.041303 -87.268857 1994.833333 28 123 120
-398.133018 -87.254275 1994.500000 29 124 121
-400.458159 -87.290731 1995.333333 28 123 120
-402.885993 -87.349061 1996.666667 27 122 119
-405.688624 -87.487595 1999.833333 27 122 119
-408.396136 -87.604254 2002.500000 27 122 119
-411.143589 -87.728206 2005.333333 27 122 119
-414.137631 -87.903195 2009.333333 25 120 117
-416.691419 -87.983399 2011.166667 25 120 117
-419.561580 -88.129224 2014.500000 27 122 119
-422.055141 -88.194845 2016.000000 28 123 120
-424.446730 -88.238592 2017.000000 29 124 121
-427.016747 -88.318796 2018.833333 31 123 121
-429.378132 -88.355252 2019.666667 30 122 120
-431.705707 -88.384417 2020.333333 27 119 117
-434.142106 -88.435456 2021.500000 27 119 117
-436.473107 -88.464621 2022.166667 27 119 117
-438.950169 -88.522951 2023.500000 26 118 116
-440.812425 -88.457330 2022.000000 34 115 114
-442.707951 -88.399000 2020.666667 42 123 122
374.349995 -89.916769 2005.833333 28 81 83
368.749161 -89.610447 1999.000000 36 109 104
365.975117 -89.461022 1995.666667 36 109 104
363.269052 -89.326539 1992.666667 32 112 107
361.022532 -89.304125 1992.166667 31 111 106
359.107349 -89.363895 1993.500000 31 113 107
356.980381 -89.371366 1993.666667 31 113 107
355.031027 -89.423665 1994.833333 30 114 110
353.079149 -89.475964 1996.000000 30 114 110
350.978236 -89.490907 1996.333333 30 114 110
348.993089 -89.535734 1997.333333 31 115 111
346.976837 -89.573091 1998.166667 31 115 111
344.872499 -89.588033 1998.500000 30 114 110
342.938923 -89.647803 1999.833333 29 113 109
340.746859 -89.640332 1999.666667 29 113 109
338.696256 -89.670217 2000.333333 29 113 109
336.532051 -89.670217 2000.333333 31 115 111
334.200691 -89.625390 1999.333333 29 113 109
331.926852 -89.595505 1998.666667 30 114 110
329.516963 -89.528263 1997.166667 29 113 109
327.192274 -89.483435 1996.166667 31 115 111
324.896888 -89.446079 1995.333333 31 115 111
322.738093 -89.446079 1995.333333 30 114 110
320.311524 -89.371366 1993.666667 32 116 112
317.994950 -89.326539 1992.666667 33 117 113
315.786206 -89.311596 1992.333333 33 117 113
313.551948 -89.289182 1991.833333 31 115 111
311.422996 -89.296654 1992.000000 31 115 111
309.448938 -89.348953 1993.166667 30 114 110
307.215401 -89.326539 1992.666667 27 114 109
305.212583 -89.371366 1993.666667 27 114 109
303.182265 -89.408723 1994.500000 28 115 110
301.074681 -89.423665 1994.833333 29 116 111
299.066273 -89.468493 1995.833333 30 117 112
297.006113 -89.498378 1996.500000 28 115 110
294.969124 -89.535734 1997.333333 28 115 110
293.028064 -89.602976 1998.833333 29 116 111
290.841230 -89.595505 1998.666667 31 115 111
288.751046 -89.617918 1999.166667 31 115 111
286.611997 -89.625390 1999.333333 30 114 110
284.520010 -89.647803 1999.833333 31 115 111
282.356347 -89.647803 1999.833333 32 116 114
280.122629 -89.625390 1999.333333 29 113 111
277.797310 -89.573091 1998.166667 30 114 112
275.658440 -89.580562 1998.333333 30 114 112
273.450779 -89.565619 1998.000000 30 114 112
271.153319 -89.520792 1997.000000 32 116 114
268.880472 -89.483435 1996.166667 32 116 114
266.564890 -89.431137 1995.000000 32 116 114
264.119297 -89.334010 1992.833333 32 116 114
261.897481 -89.311596 1992.333333 33 117 115
259.611561 -89.266769 1991.333333 33 117 115
257.392450 -89.244355 1990.833333 32 116 114
255.067581 -89.184585 1989.500000 33 117 115
252.851535 -89.162171 1989.000000 32 116 114
250.720600 -89.169642 1989.166667 33 117 115
248.505996 -89.147228 1988.666667 33 117 115
246.354414 -89.147228 1988.666667 32 116 114
244.161900 -89.132286 1988.333333 32 116 114
242.010678 -89.132286 1988.333333 31 115 113
239.879563 -89.139757 1988.500000 30 114 112
237.728161 -89.139757 1988.500000 30 114 112
235.517525 -89.117343 1988.000000 30 114 112
233.484052 -89.162171 1989.000000 31 115 113
231.254572 -89.132286 1988.333333 32 116 114
229.064943 -89.117343 1988.000000 35 119 117
226.876035 -89.102401 1987.666667 33 117 115
224.631318 -89.065044 1986.833333 33 117 115
222.388404 -89.027688 1986.000000 33 117 115
220.073363 -88.960446 1984.500000 35 119 117
217.889685 -88.945504 1984.166667 35 119 117
215.670483 -88.915619 1983.500000 35 119 117
213.434782 -88.878262 1982.666667 33 117 115
211.289692 -88.878262 1982.666667 32 116 114
209.179764 -88.893205 1983.000000 33 117 115
207.086515 -88.915619 1983.500000 33 117 115
204.888862 -88.893205 1983.000000 32 116 114
202.777491 -88.908147 1983.333333 31 115 113
200.631679 -88.908147 1983.333333 33 117 115
198.569265 -88.945504 1984.166667 31 118 115
196.505047 -88.982860 1985.000000 31 118 115
194.275838 -88.945504 1984.166667 33 121 118
192.048432 -88.908147 1983.333333 32 120 117
189.918579 -88.915619 1983.500000 33 121 118
187.756809 -88.908147 1983.333333 32 120 117
185.626595 -88.915619 1983.500000 30 118 115
183.357265 -88.855849 1982.166667 30 118 115
181.212715 -88.855849 1982.166667 30 118 115
179.113335 -88.878262 1982.666667 30 118 115
176.938492 -88.863320 1982.333333 33 120 117
174.734979 -88.833435 1981.666667 33 120 117
172.547423 -88.811021 1981.166667 31 118 115
170.403956 -88.811021 1981.166667 33 120 117
168.317108 -88.840906 1981.833333 34 121 118
166.242793 -88.878262 1982.666667 31 118 115
164.166674 -88.915619 1983.500000 31 118 115
162.115980 -88.967918 1984.666667 31 118 115
160.156798 -89.072515 1987.000000 33 120 117
158.020273 -89.079987 1987.166667 31 118 115
155.948752 -89.124814 1988.166667 31 118 115
153.965317 -89.221941 1990.333333 33 120 117
151.875494 -89.259297 1991.166667 34 121 118
149.746272 -89.274240 1991.500000 33 120 117
147.665735 -89.319067 1992.500000 33 120 117
145.595206 -89.371366 1993.666667 33 120 117
143.522152 -89.423665 1994.833333 30 118 115
141.434764 -89.468493 1995.833333 30 118 115
139.263797 -89.461022 1995.666667 32 120 117
137.150443 -89.490907 1996.333333 30 118 115
135.001836 -89.498378 1996.500000 33 120 117
132.819600 -89.483435 1996.166667 33 120 117
130.605357 -89.446079 1995.333333 33 120 117
128.392918 -89.408723 1994.500000 33 120 117
126.097893 -89.311596 1992.333333 33 120 117
123.942344 -89.311596 1992.333333 31 118 115
121.735855 -89.274240 1991.500000 33 120 117
119.581208 -89.274240 1991.500000 35 122 119
117.347942 -89.214470 1990.166667 34 121 118
115.233325 -89.244355 1990.833333 35 122 119
113.032065 -89.206998 1990.000000 34 121 118
110.888327 -89.214470 1990.166667 34 121 118
108.762441 -89.236883 1990.666667 35 122 119
106.617620 -89.244355 1990.833333 33 120 117
104.489930 -89.266769 1991.333333 31 118 115
102.326898 -89.259297 1991.166667 31 118 115
100.222920 -89.304125 1992.166667 29 117 114
98.124982 -89.356424 1993.333333 32 120 117
96.056617 -89.438608 1995.166667 33 121 118
93.898002 -89.438608 1995.166667 33 121 118
91.823686 -89.520792 1997.000000 33 121 118
89.722953 -89.580562 1998.333333 32 120 117
87.612032 -89.632861 1999.500000 33 121 118
85.505710 -89.692631 2000.833333 35 123 120
83.375675 -89.729987 2001.666667 34 122 119
81.210028 -89.729987 2001.666667 32 120 117
79.064126 -89.752401 2002.166667 30 118 115
76.910740 -89.767344 2002.500000 33 121 118
74.744192 -89.767344 2002.500000 32 120 117
72.541400 -89.722516 2001.500000 32 120 117
70.334911 -89.670217 2000.333333 30 118 115
68.153667 -89.647803 1999.833333 32 120 117
65.984504 -89.640332 1999.666667 32 120 117
63.805063 -89.617918 1999.166667 33 121 118
61.590731 -89.543206 1997.500000 34 122 119
59.389923 -89.483435 1996.166667 33 121 118
57.192000 -89.423665 1994.833333 32 120 117
55.024550 -89.408723 1994.500000 32 120 117
52.831315 -89.348953 1993.166667 32 120 117
50.632491 -89.274240 1991.500000 33 121 118
48.433215 -89.192056 1989.666667 35 123 120
46.272798 -89.177113 1989.333333 34 122 119
44.087227 -89.109872 1987.833333 34 122 119
41.901386 -89.035159 1986.166667 34 122 119
39.742501 -89.012745 1985.666667 34 122 119
37.565766 -88.945504 1984.166667 33 121 118
35.395251 -88.885734 1982.833333 33 121 118
33.233212 -88.840906 1981.833333 33 121 118
31.073336 -88.796078 1980.833333 33 121 118
28.922926 -88.773665 1980.333333 33 121 118
26.764583 -88.721366 1979.166667 34 122 119
24.610838 -88.676538 1978.166667 34 122 119
22.466830 -88.661595 1977.833333 33 120 117
20.311553 -88.594354 1976.333333 35 122 119
18.173315 -88.594354 1976.333333 35 122 119
16.032372 -88.579411 1976.000000 34 121 118
13.890978 -88.556998 1975.500000 35 122 119
11.749675 -88.527113 1974.833333 35 122 119
9.614683 -88.542055 1975.166667 36 123 120
7.475814 -88.519641 1974.666667 36 123 120
5.341181 -88.549526 1975.333333 35 122 119
3.205376 -88.586883 1976.166667 35 122 119
1.067409 -88.594354 1976.333333 34 121 118
-1.071372 -88.639182 1977.333333 34 121 118
-3.209609 -88.609297 1976.666667 34 121 118
-5.350463 -88.646653 1977.500000 33 120 117
-7.491226 -88.661595 1977.833333 33 120 117
-9.634333 -88.691481 1978.500000 33 120 117
-11.780867 -88.736308 1979.500000 32 120 117
-13.927221 -88.766193 1980.166667 34 122 119
-16.066901 -88.751251 1979.833333 34 122 119
-18.215058 -88.781136 1980.500000 33 121 118
-20.366370 -88.818492 1981.333333 33 120 117
-22.517592 -88.848377 1982.000000 33 120 117
-24.676478 -88.900676 1983.166667 30 118 115
-26.824363 -88.908147 1983.333333 32 120 117
-28.967740 -88.900676 1983.166667 35 123 120
-31.121216 -88.923090 1983.666667 35 123 120
-33.256208 -88.893205 1983.000000 35 123 120
-35.392733 -88.870791 1982.500000 34 122 119
-37.496618 -88.773665 1980.333333 35 123 120
-39.615832 -88.721366 1979.166667 35 123 120
-41.714939 -88.631710 1977.166667 32 120 117
-43.835595 -88.594354 1976.333333 32 120 117
-45.946694 -88.542055 1975.166667 30 121 117
-48.047154 -88.474814 1973.666667 30 121 117
-50.178269 -88.467342 1973.500000 30 121 117
-52.335532 -88.504699 1974.333333 28 119 115
-54.471607 -88.504699 1974.333333 30 121 117
-56.645910 -88.564469 1975.666667 30 121 117
-58.833017 -88.639182 1977.333333 30 121 117
-61.008312 -88.691481 1978.500000 30 121 117
-63.239327 -88.818492 1981.333333 31 122 118
-65.421475 -88.870791 1982.500000 28 119 115
-67.674309 -89.012745 1985.666667 28 119 115
-69.863669 -89.065044 1986.833333 30 121 117
-72.061595 -89.124814 1988.166667 30 121 117
-74.281069 -89.206998 1990.000000 28 119 115
-76.466101 -89.244355 1990.833333 28 119 115
-78.672682 -89.304125 1992.166667 30 121 117
-80.821288 -89.296654 1992.000000 31 122 118
-82.976477 -89.296654 1992.000000 30 121 117
-85.210016 -89.378838 1993.833333 30 120 119
-87.374491 -89.386309 1994.000000 30 120 119
-89.531843 -89.386309 1994.000000 30 120 119
-91.666204 -89.363895 1993.500000 28 118 117
-93.823015 -89.363895 1993.500000 30 120 119
-96.019948 -89.401251 1994.333333 30 120 119
-98.194071 -89.416194 1994.666667 28 119 115
-100.352144 -89.416194 1994.666667 28 119 115
-102.553045 -89.453550 1995.500000 28 119 115
-104.747002 -89.483435 1996.166667 27 118 114
-106.897773 -89.475964 1996.000000 27 118 114
-109.075501 -89.490907 1996.333333 27 118 114
-111.244665 -89.498378 1996.500000 32 120 117
-113.404722 -89.498378 1996.500000 33 121 118
-115.535837 -89.475964 1996.000000 34 122 119
-117.734663 -89.505849 1996.666667 33 121 118
-119.864877 -89.483435 1996.166667 29 117 114
-121.963444 -89.438608 1995.166667 33 121 118
-124.122058 -89.438608 1995.166667 33 121 118
-126.227928 -89.401251 1994.333333 32 120 117
-128.396371 -89.408723 1994.500000 29 117 114
-130.597902 -89.438608 1995.166667 29 117 114
-132.734337 -89.423665 1994.833333 30 118 115
-134.926401 -89.446079 1995.333333 29 117 114
-137.096646 -89.453550 1995.500000 28 116 113
-139.348668 -89.513321 1996.833333 28 116 113
-141.627197 -89.588033 1998.500000 27 115 112
-143.885349 -89.647803 1999.833333 32 120 117
-146.170730 -89.722516 2001.500000 32 120 117
-148.397957 -89.759873 2002.333333 30 118 115
-150.539261 -89.744930 2002.000000 30 118 115
-152.667130 -89.722516 2001.500000 28 116 113
-154.729452 -89.662746 2000.166667 30 118 115
-156.828109 -89.625390 1999.333333 32 120 117
-159.017739 -89.640332 1999.666667 30 118 115
-161.020014 -89.550677 1997.666667 30 118 115
-163.113262 -89.513321 1996.833333 30 118 115
-165.163322 -89.453550 1995.500000 30 118 115
-167.070748 -89.319067 1992.500000 27 118 114
-169.056614 -89.229412 1990.500000 28 119 115
-171.210179 -89.229412 1990.500000 28 119 115
-173.102458 -89.094929 1987.500000 28 119 115
-175.120512 -89.027688 1986.000000 31 122 118
-177.120443 -88.952975 1984.333333 28 119 115
-179.131824 -88.885734 1982.833333 28 119 115
-181.200909 -88.848377 1982.000000 27 118 114
-183.391531 -88.870791 1982.500000 25 116 112
-185.474050 -88.840906 1981.833333 30 121 117
-187.602460 -88.833435 1981.666667 31 122 118
-189.698593 -88.811021 1981.166667 30 121 117
-191.922755 -88.848377 1982.000000 30 121 117
-194.116082 -88.870791 1982.500000 28 119 115
-196.293991 -88.885734 1982.833333 30 121 117
-198.405902 -88.870791 1982.500000 31 122 118
-200.550812 -88.870791 1982.500000 32 123 119
-202.746843 -88.893205 1983.000000 31 122 118
-204.978398 -88.930561 1983.833333 28 119 115
-207.246558 -88.982860 1985.000000 28 119 115
-209.482080 -89.020217 1985.833333 28 119 115
-211.630596 -89.020217 1985.833333 27 118 114
-213.976475 -89.102401 1987.666667 28 119 115
-216.163220 -89.117343 1988.000000 31 122 118
-218.497107 -89.192056 1989.666667 28 119 115
-220.649771 -89.192056 1989.666667 28 119 115
-222.951741 -89.251826 1991.000000 28 119 115
-225.143535 -89.266769 1991.333333 28 119 115
-227.336050 -89.281711 1991.666667 27 118 114
-229.490878 -89.281711 1991.666667 28 119 115
-231.742628 -89.319067 1992.500000 30 121 117
-233.761403 -89.266769 1991.333333 28 119 115
-235.935616 -89.274240 1991.500000 28 119 115
-237.811305 -89.169642 1989.166667 27 118 114
-239.822687 -89.117343 1988.000000 27 118 114
-241.932976 -89.102401 1987.666667 28 119 115
-243.878811 -89.027688 1986.000000 30 121 117
-245.882980 -88.975389 1984.833333 30 121 117
-247.926279 -88.938033 1984.000000 30 121 117
-249.946767 -88.893205 1983.000000 31 122 118
-251.922716 -88.833435 1981.666667 31 122 118
-253.938516 -88.788607 1980.666667 30 121 117
-256.059894 -88.781136 1980.500000 30 121 117
-258.202640 -88.781136 1980.500000 30 121 117
-260.301568 -88.766193 1980.166667 28 119 115
-262.532311 -88.796078 1980.833333 28 119 115
-264.586340 -88.766193 1980.166667 30 121 117
-266.840975 -88.803550 1981.000000 30 121 117
-269.052154 -88.825963 1981.500000 30 121 117
-271.173171 -88.818492 1981.333333 31 122 118
-273.500747 -88.878262 1982.666667 30 123 118
-275.738523 -88.908147 1983.333333 27 120 115
-278.094499 -88.975389 1984.833333 24 119 116
-280.218402 -88.967918 1984.666667 24 119 116
-282.436793 -88.990331 1985.166667 25 120 117
-284.560695 -88.982860 1985.000000 27 122 119
-286.708310 -88.982860 1985.000000 27 122 119
-288.928685 -89.005274 1985.500000 29 124 121
-291.076841 -89.005274 1985.500000 30 122 120
-293.126541 -88.975389 1984.833333 29 121 119
-295.199593 -88.952975 1984.333333 30 122 120
-297.196640 -88.908147 1983.333333 30 122 120
-299.292142 -88.893205 1983.000000 30 122 120
-301.513598 -88.915619 1983.500000 30 122 120
